ply
format ascii 1.0
element vertex 481
property float x
property float y
property float z
property int scalar_image_identifier
property double scalar_time
property float scalar_roll
property float scalar_pitch
property float scalar_yaw
property float scalar_confidence
end_header
27.0902634 -293.5827637 5.6701045 147 158.4252167 -0.0647430 0.0309333 -2.8658209 79767.4140625 
25.1629581 -294.2421875 5.7125373 148 159.4252014 -0.0649248 0.0328193 -2.8493860 62597.0664062 
22.1263618 -295.3600769 5.7672868 149 160.9252014 -0.0641235 0.0339328 -2.8069839 82033.2031250 
20.0817814 -296.2168274 5.7913203 150 161.9252014 -0.0650223 0.0497876 -2.7825212 76367.3671875 
17.9398804 -297.1209106 5.8044190 151 162.9252014 -0.0520137 0.0506661 -2.7602255 90180.5156250 
15.8157463 -298.1268005 5.8413548 152 163.9251862 -0.0394497 0.0343863 -2.7136052 84963.2265625 
13.7070293 -299.2017212 5.8859558 153 164.9251862 -0.0175443 0.0435402 -2.6910229 104655.3750000 
11.7384233 -300.2946167 5.9126973 154 165.9251862 -0.0355538 0.0374766 -2.6752193 108545.5859375 
9.7056694 -301.3346252 5.9334793 155 166.9251709 -0.0108971 0.0583208 -2.6660688 58338.2421875 
7.6796842 -302.4758606 5.8833284 156 167.9251709 -0.0129422 0.0936139 -2.6561139 64226.9062500 
5.5663710 -303.5845337 5.8408222 157 168.9251709 0.0029777 0.0818516 -2.6493061 46770.9218750 
3.4338968 -304.7962036 5.8135962 158 169.9251709 0.0145904 0.0649741 -2.6394784 48497.7265625 
1.1421821 -306.1307068 5.8008652 159 170.9251556 0.0041249 0.0602184 -2.6327431 33423.4140625 
-1.1350211 -307.5054321 5.8034172 160 171.9251556 -0.0036412 0.0588172 -2.6406689 31404.1699219 
-3.6303658 -308.7787170 5.8118300 161 172.9251556 -0.0010500 0.0507176 -2.6617620 27116.5820312 
-7.1049180 -310.7489929 5.7915664 162 174.4251556 -0.0139479 0.0958270 -2.7013657 58948.8046875 
-9.7034836 -311.9248047 5.6873622 163 175.4251404 -0.0153967 0.1151189 -2.7421997 63907.7539062 
-12.1637726 -312.9013367 5.5683012 164 176.4251404 -0.0172165 0.0948452 -2.7855911 68337.8593750 
-14.3994780 -313.6827393 5.4984336 165 177.4251404 -0.0082781 0.0800636 -2.8265729 37849.1054688 
-16.5534954 -314.3352966 5.4584484 166 178.4251251 -0.0199113 0.0739978 -2.8864727 52318.9453125 
-18.8079147 -314.8165588 5.4156513 167 179.4251251 -0.0372641 0.0845112 -2.9724731 49053.4804688 
-21.2702408 -315.0812988 5.3706989 168 180.4251251 -0.0341716 0.0744795 -3.0497406 75039.3671875 
-25.3099079 -315.3793335 5.3107877 169 181.9251251 -0.0376537 0.0803660 -3.1042876 68256.2109375 
-27.9712067 -315.5430603 5.2615371 170 182.9251251 -0.0589731 0.0805207 -3.1219919 53387.4453125 
-30.4873486 -315.6579895 5.1448193 171 183.9251099 -0.0975337 0.1147486 3.1149876 65818.3125000 
-32.6063957 -315.6268921 4.9955688 172 184.9251099 -0.1288871 0.1468677 3.0605659 82694.0000000 
-34.4215546 -315.4034424 4.8646531 173 185.9251099 -0.0839944 0.1498400 3.0407674 98519.6171875 
-36.2359657 -315.3012085 4.6534505 174 186.9251099 -0.0701185 0.1996442 3.0701692 73166.4921875 
-37.4309921 -315.4215698 4.5327101 175 187.9250946 -0.0697195 0.2032984 -3.1327119 142553.1562500 
-38.4741211 -315.6876221 4.3841844 176 188.9250946 -0.0870055 0.1794554 -3.0444019 80554.8359375 
-39.1680870 -316.0182800 4.2552390 177 189.9250946 -0.1133310 0.1574501 -2.9521282 178356.4531250 
-40.1264992 -316.5653076 4.0894809 178 190.9250946 -0.1124132 0.1982812 -2.7856517 112755.1171875 
-40.9373093 -317.2677612 3.9250822 179 191.9250793 -0.1199250 0.2483667 -2.6334937 109066.0390625 
-41.6551971 -318.0494385 3.7134414 180 192.9250793 -0.0869775 0.2720152 -2.4638619 111821.1875000 
-42.2689934 -318.9472961 3.4822626 181 193.9250793 -0.0484559 0.2846859 -2.3009930 106849.7968750 
-42.8490601 -319.9914246 3.2074051 182 194.9250793 -0.0210203 0.2904387 -2.1747355 120977.3515625 
-43.4111938 -321.1401978 2.9145656 183 195.9250641 0.0009130 0.2995524 -2.0906734 83077.3828125 
-44.0555115 -322.4145508 2.5660567 184 196.9250641 0.0301850 0.3268905 -2.0511277 88040.2500000 
-44.6273270 -323.6348572 2.2177072 185 197.9250641 0.0180493 0.3306207 -2.0445149 106438.4218750 
-45.2018547 -324.7600403 1.8915305 186 198.9250641 0.0294121 0.3205280 -2.0503814 110638.0078125 
-45.7781868 -325.9100037 1.5549140 187 199.9250488 0.0207465 0.3153365 -2.0603428 74918.1093750 
-46.3526230 -327.0177002 1.2568953 188 200.9250488 0.0188616 0.3152377 -2.0715153 79241.0312500 
-46.9111176 -328.0287476 0.9763227 189 201.9250488 0.0186296 0.3094057 -2.0819051 72565.1484375 
-47.3966370 -328.9941406 0.7013423 190 202.9250488 0.0099957 0.3082715 -2.0874081 89645.1875000 
-47.8974876 -329.9495544 0.4434949 191 203.9250336 0.0020714 0.3071838 -2.0936849 80801.6250000 
-48.4003181 -330.8716431 0.2042355 192 204.9250336 -0.0038557 0.3068489 -2.0931201 66414.4531250 
-48.9369392 -331.8760071 -0.0631683 193 205.9250336 -0.0121361 0.2986887 -2.0973401 67630.1875000 
-49.5798264 -333.0790100 -0.3809682 194 206.9250336 -0.0190937 0.2844382 -2.1000772 77309.8281250 
-50.3494072 -334.4570923 -0.7287108 195 207.9250336 -0.0176767 0.2812950 -2.0999184 69192.6328125 
-51.2131195 -336.0064392 -1.0979556 196 208.9250183 -0.0143329 0.2769174 -2.0975392 60593.1484375 
-52.1733131 -337.7174377 -1.5233269 197 209.9250183 -0.0061022 0.2704314 -2.0944574 79956.0234375 
-53.1398582 -339.5277405 -1.9356711 198 210.9250183 -0.0054845 0.2756525 -2.0913558 95475.3359375 
-54.0206642 -341.1591187 -2.3168728 199 211.9250183 -0.0036979 0.2803617 -2.0900314 80002.6796875 
-54.9305916 -342.7973938 -2.7330172 200 212.9250031 0.0074610 0.2806140 -2.0866232 80191.5312500 
-55.8120041 -344.5046387 -3.1289992 201 213.9250031 0.0014969 0.2774822 -2.0857060 95232.2812500 
-56.6778831 -346.0934448 -3.5138187 202 214.9250031 -0.0052693 0.2499218 -2.0981536 62763.0351562 
-57.5231514 -347.4228210 -3.7720788 203 215.9250031 0.0020437 0.1966195 -2.1298454 80349.5312500 
-58.1222649 -348.3637085 -3.9032018 204 216.9249878 -0.0009096 0.1697963 -2.1570835 110740.9609375 
-58.7759552 -349.2537537 -3.9934618 205 217.9249878 0.0081657 0.1392678 -2.1867490 120452.2812500 
-60.1036644 -350.9576721 -4.0975704 206 218.9249878 0.0093406 0.0898628 -2.2487831 127573.7187500 
-62.4866638 -353.6102600 -4.2261639 207 219.9249878 0.0055002 0.0849583 -2.3396835 168512.2031250 
-66.0268707 -356.6722717 -4.3424420 208 220.9249725 0.0051212 0.0805655 -2.4926467 135202.0625000 
-70.6071014 -359.4067383 -4.4190936 209 221.9249725 0.0276527 0.0706515 -2.6724424 111983.5781250 
-75.8030319 -361.4590454 -4.2678819 210 222.9249725 0.0250684 -0.0167768 -2.8303792 96726.2187500 
-80.9753342 -363.0755310 -3.7636011 211 223.9249725 0.0111390 -0.0558409 -2.8756096 103604.5703125 
-86.0103760 -364.6286621 -3.2104659 212 224.9249725 0.0078093 -0.0415874 -2.8547931 107892.8671875 
-91.0213928 -366.3996277 -2.7263892 213 225.9249573 0.0125802 -0.0339596 -2.8086400 58503.2382812 
-95.9415894 -368.5234070 -2.2761245 214 226.9249573 0.0064052 -0.0368319 -2.7337885 72282.1953125 
-100.6940842 -371.0298157 -1.8099258 215 227.9249573 0.0159160 -0.0325060 -2.6432257 102796.1875000 
-105.4532013 -374.2107849 -1.3216605 216 228.9249573 0.0080969 -0.0421468 -2.5457799 151253.4375000 
-110.1491318 -378.0530701 -0.7712438 217 229.9249420 0.0142942 -0.0388269 -2.4393122 101727.8125000 
-114.5607681 -382.6433411 -0.2053245 218 230.9249420 -0.0036048 -0.0259599 -2.3267107 126228.1484375 
-118.5000229 -387.3981934 0.3192632 219 231.9249420 0.0072373 -0.0251521 -2.2590399 80321.2890625 
-121.9040070 -392.2740479 0.7515136 220 232.9249420 0.0187015 -0.0176675 -2.1756670 90369.0546875 
-125.1284561 -397.6690063 1.2349857 221 233.9249268 0.0285145 -0.0350237 -2.1076643 82646.6562500 
-128.2487946 -403.4861450 1.7829626 222 234.9249268 0.0392954 -0.0240222 -2.0709429 106150.2265625 
-131.2612000 -409.1916809 2.3257852 223 235.9249268 0.0448073 -0.0247590 -2.0742693 121768.6171875 
-134.0656586 -414.9541626 2.7838531 224 236.9249268 0.0334961 -0.0153770 -2.0351207 104928.5781250 
-136.7462769 -420.7839050 3.3057764 225 237.9249268 0.0123264 -0.0288171 -2.0364277 104301.7890625 
-139.5430756 -426.4862366 3.8237092 226 238.9249115 0.0066500 -0.0215815 -2.0601888 51120.6992188 
-142.4415741 -431.8150024 4.2904315 227 239.9249115 0.0110122 -0.0199735 -2.1152239 57117.6328125 
-145.4125824 -436.4306335 4.6697111 228 240.9249115 0.0350751 -0.0055993 -2.1818988 104009.2890625 
-148.0029755 -440.0053101 4.9730034 229 241.9249115 0.0530930 0.0014494 -2.2155936 90221.0468750 
-149.7934570 -442.3756409 5.1580653 230 242.9248962 0.0526653 0.0022240 -2.2380993 148538.9531250 
-150.7894592 -443.6145935 5.2577634 231 243.9248962 0.0490303 -0.0081534 -2.2680445 145130.6093750 
-151.7003937 -444.5272827 5.3262501 232 244.9248962 0.0544393 -0.0199276 -2.3325367 136806.2343750 
-153.4712982 -446.1147461 5.4685378 233 245.9248962 0.0488012 -0.0030756 -2.4390194 166214.8750000 
-156.3682098 -448.0399475 5.6075468 234 246.9248962 0.0287085 0.0186540 -2.6153986 132544.0625000 
-160.4513855 -449.6390076 5.7458086 235 247.9248810 0.0299150 0.0172073 -2.8407767 158609.8750000 
-165.2853546 -450.6431580 5.8822327 236 248.9248810 -0.0093946 0.0351266 -3.0039585 119056.2031250 
-170.0340424 -451.1820068 6.0296364 237 249.9248810 -0.0122496 0.0243823 -3.0578713 114789.7734375 
-174.3563995 -451.9427185 6.1587472 238 250.9248810 -0.0250084 0.0337468 -2.9725282 142532.7812500 
-178.3754120 -453.2302856 6.2310967 239 251.9248657 -0.0294277 0.0394649 -2.8271179 98682.0312500 
-182.5242157 -455.3253479 6.2927003 240 252.9248657 -0.0309598 0.0364848 -2.6609008 79279.9843750 
-186.5244293 -458.1979065 6.2975197 241 253.9248657 -0.0371151 0.0529118 -2.5300589 68517.5703125 
-189.7705688 -460.6009521 6.3813734 242 254.9248657 -0.0271838 0.0357801 -2.5185575 68095.9609375 
-191.5073547 -461.9728394 6.4264631 243 255.9248505 -0.0100157 0.0487463 -2.4844105 98203.6015625 
-192.3894958 -462.8295898 6.4493275 244 256.9248657 -0.0029984 0.0510208 -2.4161298 124670.9609375 
-192.9129639 -463.5975647 6.4383392 245 257.9248352 0.0051905 0.0542172 -2.2863133 107406.3984375 
-193.2609406 -464.5650024 6.4463592 246 258.9248352 0.0033067 0.0519016 -2.0881615 104789.7343750 
-193.7640076 -466.3610535 6.4558811 247 259.9248352 -0.0142686 0.0393742 -1.9340190 100336.2734375 
-194.7990265 -469.3182373 6.4598422 248 260.9248352 0.0033140 0.0440840 -1.9092404 85730.9140625 
-195.6734467 -473.3819885 6.5429716 249 261.9248352 -0.0059455 0.0398269 -1.7874613 79650.5468750 
-196.0802307 -478.0779419 6.6075091 250 262.9248352 -0.0124480 0.0314920 -1.6623033 86856.3750000 
-196.4758148 -483.1781616 6.7594728 251 263.9248352 -0.0036329 0.0089523 -1.6812934 78071.1796875 
-197.3123322 -488.4896545 6.9800363 252 264.9248352 0.0216473 0.0146727 -1.7777653 85489.2734375 
-198.7995300 -493.7807922 7.2045927 253 265.9248047 0.0276709 0.0324716 -1.9181802 65626.5468750 
-201.2950287 -498.9118652 7.2923074 254 266.9248047 0.0524411 0.0360897 -2.0728796 78400.2656250 
-204.7823486 -503.8590698 7.4480400 255 267.9248047 0.0674205 0.0205605 -2.2584448 105932.6953125 
-209.4096375 -508.3156738 7.7067213 256 268.9248047 0.0629012 0.0129906 -2.4567764 71321.9296875 
-215.1141205 -511.9208069 7.9848137 257 269.9248047 0.0609463 0.0102214 -2.6576037 103194.9218750 
-221.3121948 -514.6493530 8.3290644 258 270.9248047 0.0445584 0.0159267 -2.7911305 38540.0703125 
-227.5888367 -516.9024048 8.6658239 259 271.9248047 0.0317142 -0.0034521 -2.8315196 61636.0000000 
-233.4520569 -519.2065430 9.0550051 260 272.9248047 0.0211992 0.0026881 -2.7617564 62610.8085938 
-238.2185822 -521.9597168 9.3870497 261 273.9248047 0.0075770 0.0087947 -2.5797560 69158.2109375 
-241.9369812 -525.1776123 9.6084938 262 274.9247742 0.0137036 0.0169243 -2.4021187 62574.2343750 
-244.9695892 -528.9315186 9.8590822 263 275.9247742 0.0180819 0.0033704 -2.2197418 54534.8359375 
-247.1623840 -533.1613770 10.0417795 264 276.9247742 0.0221688 0.0193090 -2.0104053 87917.0781250 
-248.3874817 -537.9378052 10.1956997 265 277.9247742 0.0267016 0.0165456 -1.7755697 116173.5390625 
-248.3855591 -543.0518799 10.3882685 266 278.9247742 0.0344584 0.0131400 -1.5203972 125997.0000000 
-247.3240204 -548.1134644 10.6766911 267 279.9247742 0.0431838 -0.0005879 -1.3266493 114616.1250000 
-245.7425842 -552.6527100 10.9460402 268 280.9247742 0.0345299 0.0021479 -1.2561182 131024.3671875 
-244.2002716 -557.3657227 11.1768513 269 281.9247742 0.0300617 0.0066846 -1.2882427 113125.7812500 
-242.9449310 -562.4597168 11.4037466 270 282.9247437 0.0274897 0.0070560 -1.3793504 126558.5546875 
-242.2716980 -568.0582886 11.6704569 271 283.9247437 0.0521549 0.0115766 -1.5016928 115917.7343750 
-242.2495575 -573.8943481 11.9494524 272 284.9247437 0.0526200 0.0075673 -1.6220676 97413.5156250 
-242.9464111 -579.9163208 12.2687063 273 285.9247437 0.0680167 0.0065525 -1.7327091 112777.9453125 
-244.3077393 -585.9442139 12.6200247 274 286.9247437 0.0574454 -0.0155812 -1.8669379 90378.9218750 
-246.6028900 -591.8419800 12.9893389 275 287.9247437 0.0340645 -0.0064207 -2.0219381 109159.7812500 
-250.0272064 -597.6677856 13.3862438 276 288.9247437 0.0135971 -0.0017394 -2.1893859 100886.8593750 
-254.4455566 -602.9129028 13.7622461 277 289.9247437 0.0148347 0.0010903 -2.3417914 110020.7343750 
-259.3520813 -607.6873779 14.0524454 278 290.9247437 0.0279208 0.0140433 -2.3976135 114919.8828125 
-264.0003052 -612.1312866 14.3726358 279 291.9247131 0.0277698 0.0046898 -2.3903463 115283.1328125 
-268.1324158 -616.5226440 14.6457100 280 292.9247131 0.0285898 0.0147510 -2.3247283 112708.8828125 
-271.5370483 -620.8521118 14.8838587 281 293.9247131 0.0327624 0.0261324 -2.2218776 93067.2812500 
-274.1207886 -625.2167969 15.0751400 282 294.9247131 0.0319627 0.0211609 -2.0873997 70880.4687500 
-276.0276489 -629.6947632 15.2075100 283 295.9247131 0.0096485 0.0447027 -1.9942615 72960.5625000 
-277.6569214 -633.8453979 15.2857466 284 296.9247131 0.0165175 0.0428358 -1.9508471 139483.2968750 
-279.1785889 -637.9335938 15.3310051 285 297.9247131 0.0216017 0.0501641 -1.9587787 140104.5156250 
-281.2726135 -642.2460938 15.3193913 286 298.9247131 0.0070922 0.0611184 -2.0872838 117781.4609375 
-284.2823486 -646.6643066 15.2487803 287 299.9246826 -0.0070902 0.0620501 -2.2418039 102827.4062500 
-288.1574707 -650.8220825 15.1891890 288 300.9246826 -0.0027799 0.0845505 -2.3806808 99605.2812500 
-292.4144592 -654.6488647 15.0786285 289 301.9246826 -0.0036206 0.0831683 -2.4513860 131944.2500000 
-296.6813049 -658.3009644 14.9256544 290 302.9246826 0.0313279 0.0916446 -2.4365327 145838.9062500 
-300.5844727 -662.0130615 14.8291464 291 303.9246826 0.0316151 0.0750163 -2.3853192 133197.9218750 
-303.9488525 -665.9197998 14.7834568 292 304.9246826 0.0282569 0.0722839 -2.2764943 122597.8750000 
-306.8264160 -670.2365112 14.6924429 293 305.9246826 0.0413275 0.0735206 -2.1340170 125636.9765625 
-308.9768066 -675.0372314 14.6223316 294 306.9246826 0.0438666 0.0819530 -1.9663343 61546.6914062 
-310.3041992 -679.8685303 14.5032578 295 307.9246521 0.0625999 0.0775419 -1.8230729 59511.3906250 
-311.0642700 -684.5859375 14.5554247 296 308.9246521 0.0517614 0.0377837 -1.7258186 75639.4453125 
-311.4262390 -689.5010986 14.5441685 297 309.9246521 0.0665311 0.0561402 -1.6397985 46616.9765625 
-311.2580566 -694.5076294 14.6119576 298 310.9246521 0.0687448 0.0377333 -1.5203727 39909.6718750 
-310.3161011 -699.4412231 14.7737789 299 311.9246521 0.0347346 0.0261845 -1.3737460 74772.3828125 
-308.5682678 -704.3142700 14.9341278 300 312.9246521 0.0230033 0.0315586 -1.2078767 73917.0078125 
-306.1150818 -709.2271118 15.0586166 301 313.9246521 0.0363632 0.0307466 -1.1075369 60361.5195312 
-303.3328247 -714.0916748 15.2243576 302 314.9246521 0.0274231 0.0137352 -1.0667975 89978.1875000 
-300.4716187 -719.0002441 15.4208136 303 315.9246216 0.0538736 0.0301836 -1.0537840 54871.2578125 
-297.6602173 -723.7830811 15.6535378 304 316.9246216 0.0578987 0.0110614 -1.0656618 65481.2734375 
-295.1244812 -728.6397095 15.9540539 305 317.9246216 0.0488430 -0.0017519 -1.1362350 96615.6484375 
-292.9031677 -733.8583374 16.2174950 306 318.9246216 0.0404976 0.0182125 -1.2200509 94780.7656250 
-291.1864014 -739.2163086 16.4545269 307 319.9246216 0.0758490 0.0160425 -1.2857044 74878.8437500 
-289.7735901 -744.7236328 16.6297398 308 320.9246216 0.0805037 0.0212158 -1.3618058 114084.0859375 
-288.8039856 -750.4497681 16.9131985 309 321.9246216 0.1129737 0.0129392 -1.4255028 96851.8750000 
-288.0562744 -756.3282471 17.3123245 310 322.9245911 0.0650465 0.0010109 -1.5032779 123683.3828125 
-287.8470764 -762.3840942 17.6731682 311 323.9245911 0.0260466 -0.0019982 -1.6033393 93010.1093750 
-288.2239075 -768.6649780 18.0176048 312 324.9245911 0.0239333 0.0050448 -1.6733602 132336.6093750 
-288.8977356 -775.2020264 18.3475552 313 325.9245911 0.0058903 0.0049574 -1.7223443 101361.6406250 
-290.1006470 -781.9465942 18.7025318 314 326.9245911 0.0212599 -0.0013826 -1.7875696 109692.1484375 
-291.6893005 -788.7800293 19.1079636 315 327.9245911 0.0312674 -0.0070603 -1.8288167 105560.2187500 
-293.2660828 -795.5916748 19.5672150 316 328.9245911 0.0155422 -0.0077570 -1.8280613 120718.8359375 
-294.8061523 -802.1748047 20.0608139 317 329.9245911 0.0159608 -0.0227109 -1.8202717 121835.7578125 
-296.0767517 -808.8091431 20.5570221 318 330.9245605 0.0189736 -0.0144714 -1.7586867 110865.8046875 
-296.8208313 -815.2780762 21.0999317 319 331.9245605 0.0248330 -0.0203808 -1.6741142 97583.3828125 
-296.9779358 -821.5838013 21.5890675 320 332.9245605 0.0290080 -0.0198214 -1.5906605 96141.9218750 
-296.7977905 -827.8081665 22.0905876 321 333.9245605 0.0352672 -0.0229945 -1.5515784 38421.1289062 
-296.2853088 -833.8348389 22.5284576 322 334.9245605 0.0508967 -0.0093559 -1.4768111 37790.5781250 
-295.2147522 -839.6599121 22.9285526 323 335.9245605 0.0358397 -0.0104017 -1.3802365 35126.9687500 
-293.5864563 -845.1719971 23.2884216 324 336.9245605 0.0282171 -0.0013634 -1.2744900 46702.8085938 
-291.6083984 -850.7892456 23.5649223 325 337.9245605 0.0215265 0.0120260 -1.2484827 61381.1093750 
-289.4176636 -856.6798706 23.8226166 326 338.9245300 0.0148385 0.0158460 -1.2381086 76628.2187500 
-287.0661011 -862.7778320 24.0302868 327 339.9245300 0.0154624 0.0274924 -1.2246906 100227.0468750 
-284.5750427 -869.0796509 24.1797562 328 340.9245300 0.0112964 0.0414599 -1.2107482 89926.1250000 
-281.8751526 -875.5269165 24.2359219 329 341.9245300 0.0087993 0.0493009 -1.1952572 105930.1093750 
-279.1820068 -882.0271606 24.2314568 330 342.9245300 0.0285391 0.0710122 -1.2010286 103262.1718750 
-276.8853760 -888.3202515 24.1788788 331 343.9245300 0.0509187 0.0684421 -1.2490958 86177.2578125 
-275.0453186 -894.0734253 24.2068329 332 344.9245300 0.0562517 0.0563607 -1.2895820 82997.1875000 
-273.4862061 -899.1170654 24.2189751 333 345.9244995 0.0616169 0.0658010 -1.2778651 72959.9921875 
-271.6353760 -903.6256714 24.1808205 334 346.9244995 0.0373581 0.0810620 -1.1825838 60369.2539062 
-269.2875366 -907.5433350 24.1493607 335 347.9244995 0.0335637 0.0743648 -1.0077858 65416.2617188 
-266.3086243 -910.8183594 24.1361752 336 348.9244995 0.0515936 0.0604515 -0.7949091 71249.6250000 
-262.7247620 -913.3005981 24.1762028 337 349.9244995 0.0462414 0.0363954 -0.5711011 48187.6328125 
-258.7346802 -914.6295166 24.3048210 338 350.9244995 0.0165036 0.0331292 -0.2964265 66587.1640625 
-254.6508179 -914.9762573 24.4111938 339 351.9244995 0.0127434 0.0284431 -0.0677883 83432.0156250 
-250.7713470 -914.3577881 24.5260143 340 352.9244995 -0.0040866 0.0342209 0.1849608 122198.0468750 
-246.8743286 -912.8230591 24.6104393 341 353.9244690 0.0001345 0.0335663 0.3878847 125839.5781250 
-242.9356232 -910.7212524 24.7379322 342 354.9244690 -0.0000380 0.0327504 0.4920097 136729.5781250 
-239.3240967 -908.2199097 24.8275909 343 355.9244690 0.0100936 0.0396816 0.6276453 138328.3125000 
-236.1302643 -905.3546753 24.8959885 344 356.9244690 0.0261216 0.0410958 0.7307557 98248.3046875 
-233.1435852 -902.2645264 25.0194473 345 357.9244690 0.0090285 0.0277808 0.7860981 108330.8281250 
-230.3014832 -898.9808960 25.1351471 346 358.9244690 0.0211367 0.0428586 0.8620039 99561.8984375 
-227.8043060 -895.4074707 25.2139664 347 359.9244690 0.0349141 0.0432276 0.9781614 133595.5781250 
-225.7546387 -891.3319092 25.2903709 348 360.9244385 0.0304163 0.0532924 1.1200377 133186.8437500 
-224.2617340 -886.9640503 25.3422356 349 361.9244385 0.0221248 0.0482399 1.2447394 168074.0468750 
-223.2242584 -882.5519409 25.3968849 350 362.9244385 0.0152229 0.0539595 1.3351793 164075.1562500 
-222.5654144 -877.9851685 25.4270802 351 363.9244385 0.0247769 0.0477355 1.4333085 156950.3906250 
-222.4309082 -873.1305542 25.4998932 352 364.9244385 0.0177872 0.0488657 1.5488145 110608.6406250 
-222.7966919 -868.0614014 25.5226421 353 365.9244385 0.0153287 0.0559312 1.6428026 119247.3515625 
-223.2860870 -862.8713379 25.5450420 354 366.9244385 0.0002754 0.0567845 1.6300273 91577.6718750 
-223.4988556 -857.6157227 25.5498886 355 367.9244080 0.0104855 0.0598576 1.5774251 111330.9218750 
-223.2842255 -852.3916016 25.5391636 356 368.9244080 0.0120573 0.0588664 1.4799067 103298.6406250 
-222.5589294 -847.0551147 25.5488873 357 369.9244080 0.0124244 0.0617663 1.3879766 106723.1562500 
-221.3020630 -841.6187134 25.5304108 358 370.9244080 0.0104914 0.0747686 1.2929738 102057.4062500 
-219.5223846 -836.2713623 25.4631958 359 371.9244080 0.0306615 0.0736013 1.2170426 96360.8906250 
-217.5694427 -830.9893799 25.3955917 360 372.9244080 0.0134355 0.0733109 1.1789998 142894.2343750 
-215.7378693 -825.8729248 25.3320103 361 373.9244080 0.0077395 0.0807759 1.2193071 135699.4687500 
-214.4202118 -820.7817993 25.2542629 362 374.9243774 -0.0084929 0.0777716 1.3136771 78372.4765625 
-213.6385956 -815.5401611 25.1056118 363 375.9243774 0.0052406 0.0920718 1.4368690 61117.4531250 
-213.4046478 -810.2865601 24.9145966 364 376.9243774 0.0355230 0.1022929 1.5491685 74511.1015625 
-213.9080963 -805.1407471 24.7445984 365 377.9243774 0.0101148 0.0975945 1.6702669 65831.4296875 
-215.0035248 -800.1544800 24.5312252 366 378.9243774 0.0068623 0.1111924 1.7913988 81510.5625000 
-216.6913300 -795.1650391 24.2666416 367 379.9243774 0.0161254 0.1132882 1.9076318 64663.2187500 
-218.9715729 -790.1623535 24.0069714 368 380.9243774 0.0133481 0.1100303 1.9938630 88204.1562500 
-221.5375366 -785.0921021 23.7371407 369 381.9243469 0.0050653 0.1055096 2.0205564 87302.4375000 
-224.2068939 -779.8414307 23.4920521 370 382.9243469 0.0151441 0.1056909 2.0166855 106570.8593750 
-226.8479614 -774.4577026 23.2629509 371 383.9243469 -0.0077651 0.0863787 1.9863372 83834.0156250 
-229.3822021 -768.8535767 23.0913925 372 384.9243469 -0.0306023 0.0967974 1.9561398 71095.5078125 
-231.7591095 -763.0935669 22.8660851 373 385.9243469 -0.0268249 0.0943649 1.9312540 84571.9296875 
-234.0804443 -757.2005005 22.6228886 374 386.9243469 -0.0201013 0.1027957 1.9187238 95436.2500000 
-236.3367920 -751.3685303 22.3686047 375 387.9243469 -0.0181039 0.1051050 1.9157951 98055.4531250 
-238.5389862 -745.7213745 22.1485291 376 388.9243164 -0.0144306 0.0959335 1.9228544 102903.2265625 
-240.7267456 -740.2971191 21.9790840 377 389.9243164 -0.0194932 0.0958598 1.9321439 86777.7890625 
-242.9323578 -734.7958374 21.7957554 378 390.9243164 -0.0261723 0.0922602 1.9143564 109301.7421875 
-244.8097382 -729.0054932 21.6302528 379 391.9243164 -0.0349696 0.0929703 1.8345464 97840.0156250 
-246.2157135 -722.9439087 21.4728527 380 392.9243164 -0.0335127 0.0866134 1.7470967 80611.4687500 
-247.1234741 -716.6664429 21.3443222 381 393.9243164 -0.0385187 0.0827496 1.6605241 92864.5156250 
-247.4438782 -710.3179932 21.2758446 382 394.9243164 -0.0299404 0.0728341 1.5737419 108392.5937500 
-247.2377625 -703.8809814 21.2656155 383 395.9242859 -0.0285043 0.0705428 1.4858657 81147.5546875 
-246.4709015 -697.4954834 21.2314987 384 396.9242859 -0.0257478 0.0588218 1.3977032 92751.5703125 
-245.2079926 -691.3739624 21.3065662 385 397.9242859 -0.0340520 0.0457390 1.3075826 102632.3437500 
-243.3242798 -685.4445801 21.4537945 386 398.9242859 -0.0316719 0.0393640 1.2032576 85517.8671875 
-240.9995575 -679.8695068 21.6118069 387 399.9242859 -0.0375596 0.0384260 1.1196636 106615.9921875 
-238.3999023 -674.8317261 21.7745781 388 400.9242859 -0.0286760 0.0339569 1.0560898 60984.3554688 
-235.5232849 -670.0464478 21.9333477 389 401.9242859 -0.0001224 0.0361534 0.9961205 97520.7031250 
-232.2845612 -665.3761597 22.0445671 390 402.9242554 0.0088850 0.0605517 0.9208016 74870.3984375 
-228.5592346 -660.7747192 22.0295410 391 403.9242554 0.0038658 0.0717298 0.8406603 103571.0468750 
-224.1151733 -656.2998047 21.9816227 392 404.9242554 0.0204694 0.0697964 0.7415665 105729.6406250 
-219.1071320 -652.1170654 21.9363213 393 405.9242554 0.0121846 0.0635866 0.6375962 47833.8515625 
-213.6320190 -648.4295654 21.9588661 394 406.9242554 0.0392248 0.0714470 0.5602816 77730.8437500 
-208.0136261 -645.0717773 21.9652138 395 407.9242554 0.0288580 0.0628676 0.4903962 106347.8203125 
-202.2207184 -642.3145752 22.0015411 396 408.9242554 0.0282110 0.0543176 0.3931912 116088.7265625 
-196.4147491 -640.1157837 22.0733433 397 409.9242249 0.0162340 0.0517207 0.3097726 115541.9375000 
-190.7676239 -638.3732300 22.2166176 398 410.9242249 -0.0084927 0.0368115 0.2532865 158065.8750000 
-185.0783539 -636.6563110 22.3596039 399 411.9242249 -0.0039810 0.0326601 0.2838500 135047.6406250 
-179.6028595 -634.5316772 22.5583973 400 412.9242249 -0.0106463 0.0172603 0.3740506 96519.0390625 
-174.3207855 -631.8559570 22.8021259 401 413.9242249 -0.0043812 0.0204376 0.4749292 118368.5937500 
-169.3871765 -628.7121582 23.0694618 402 414.9242249 0.0045252 0.0191252 0.5806375 129759.6562500 
-165.2384644 -625.2523804 23.3442020 403 415.9242249 0.0070326 0.0219391 0.7086691 103999.8437500 
-161.8747864 -621.6276855 23.5743427 404 416.9241943 -0.0002396 0.0148232 0.8313717 113191.7187500 
-159.0455933 -617.6370239 23.8162575 405 417.9241943 0.0043579 0.0171230 0.9697353 90054.1640625 
-156.8601685 -613.2939453 24.0230026 406 418.9241943 -0.0079686 0.0114214 1.1044276 61172.2500000 
-155.0877991 -608.7353516 24.2486877 407 419.9241943 -0.0158869 0.0121705 1.1939175 49057.2460938 
-153.7256622 -603.9359741 24.4579411 408 420.9241943 -0.0353039 0.0121900 1.2878846 69542.7812500 
-152.9365540 -598.8793945 24.6249332 409 421.9241943 -0.0499594 0.0268859 1.4239258 78957.5156250 
-152.8498688 -593.6047363 24.7701187 410 422.9241943 -0.0695455 0.0345470 1.5443926 57092.1953125 
-152.9172211 -588.1041260 24.8828220 411 423.9241638 -0.0691385 0.0340563 1.5452085 106629.7734375 
-152.5355377 -582.3887329 24.9897480 412 424.9241638 -0.0610782 0.0370178 1.4451977 81700.5937500 
-151.2290192 -576.6455688 25.1871567 413 425.9241638 -0.0381831 0.0201294 1.2741545 85919.1484375 
-148.8755951 -571.0272217 25.4238625 414 426.9241638 -0.0257221 0.0182919 1.1078628 63829.2304688 
-145.7441101 -565.5770264 25.6970005 415 427.9241638 0.0134165 0.0265746 0.9991395 69615.7500000 
-141.9244385 -560.3588257 25.9716663 416 428.9241638 0.0273865 0.0084386 0.8817746 90180.3828125 
-137.3607788 -555.4898682 26.3144970 417 429.9241638 0.0278773 0.0141714 0.7553817 91948.2421875 
-132.1277618 -550.9939575 26.5944366 418 430.9241333 0.0409731 0.0268618 0.6580932 35787.8867188 
-126.4686813 -546.9003296 26.8693581 419 431.9241333 0.0379762 0.0264042 0.5751981 36230.2617188 
-120.6047287 -543.1024780 27.1208115 420 432.9241333 0.0252911 0.0278829 0.5414982 35861.7031250 
-114.7568665 -539.5228882 27.3695965 421 433.9241333 0.0247342 0.0336054 0.5166489 36446.6914062 
-109.5663605 -536.5277100 27.5968227 422 434.9241333 0.0203532 0.0296344 0.4918339 35881.4960938 
-105.4346313 -534.1196289 27.7950726 423 435.9241333 0.0139360 0.0205353 0.5143857 36904.6718750 
-101.6992874 -531.5511475 27.9963093 424 436.9241333 0.0099446 0.0215999 0.5998192 44438.2265625 
-98.0006638 -528.4929810 28.1832466 425 437.9241333 0.0177892 0.0264990 0.6932160 34263.5703125 
-94.5613785 -524.9726562 28.3773613 426 438.9241028 0.0211566 0.0105647 0.8127886 27780.8105469 
-91.8018265 -520.9181519 28.5871964 427 439.9241028 0.0134057 0.0194097 1.0003970 25793.0234375 
-89.9008942 -516.2193604 28.8142204 428 440.9241028 -0.0293662 0.0117173 1.1938829 33043.7929688 
-88.6690292 -510.9331360 29.0023308 429 441.9241028 -0.0647793 0.0215179 1.3404084 30613.4238281 
-88.0658264 -504.9574280 29.1927929 430 442.9241028 -0.0860766 0.0270724 1.4709046 32078.7714844 
-88.0756912 -498.5534363 29.3211880 431 443.9240723 -0.0917008 0.0312223 1.5685728 25093.3359375 
-88.5819016 -491.9875793 29.4798660 432 444.9240723 -0.1008370 0.0373925 1.6415553 23103.6562500 
-89.4710999 -485.6898804 29.6053257 433 445.9240723 -0.1047234 0.0431642 1.6974927 25148.4277344 
-90.5390244 -479.6398926 29.6853733 434 446.9240723 -0.0807409 0.0549001 1.7307526 29240.5136719 
-91.6478729 -474.5899048 29.7010536 435 447.9240723 -0.0818798 0.0625161 1.7590938 33505.5429688 
-92.5985718 -470.7185974 29.7029305 436 448.9240723 -0.0833750 0.0669966 1.7837234 49827.6914062 
-93.3138123 -468.0825806 29.7186050 437 449.9240723 -0.0881992 0.0601860 1.8040794 48152.3750000 
-93.8240585 -466.3751526 29.7163734 438 450.9240417 -0.0910856 0.0596785 1.8173420 63146.4531250 
-94.2152023 -465.0809021 29.7112236 439 451.9240417 -0.0901692 0.0620856 1.8286415 66201.5859375 
-94.6491699 -463.7178345 29.6912498 440 452.9240417 -0.0905488 0.0650329 1.8461257 61938.5468750 
-95.4433899 -461.8098145 29.6667633 441 453.9240417 -0.0902551 0.0681231 1.9232749 34133.9531250 
-96.9709549 -459.0219727 29.5874653 442 454.9240417 -0.0827558 0.0781630 2.0569010 31781.8886719 
-99.5581131 -455.5787354 29.4741192 443 455.9240417 -0.0899011 0.0815678 2.2180176 32072.3691406 
-103.0790710 -452.1809692 29.2549038 444 456.9240417 -0.1023533 0.0904856 2.3675909 23046.0410156 
-107.1739120 -449.2754822 29.0462494 445 457.9240112 -0.1265088 0.1095061 2.5266786 30476.8398438 
-111.8187103 -447.1924438 28.7241573 446 458.9240112 -0.1260001 0.1161225 2.7397645 29989.0703125 
-116.7960663 -446.2964172 28.3305244 447 459.9240112 -0.1059181 0.1338828 2.9985332 39642.2382812 
-121.6555557 -446.5558472 27.8916206 448 460.9240112 -0.0888742 0.1510154 -3.0635641 35817.0429688 
-126.1956787 -447.6404724 27.4280376 449 461.9240112 -0.0928285 0.1609941 -2.9159775 30465.4863281 
-130.3530884 -448.9233704 26.9947834 450 462.9240112 -0.0711663 0.1587356 -2.8543499 38429.1328125 
-133.8289337 -450.0020447 26.6607723 451 463.9239807 -0.0406986 0.1542581 -2.8607118 24343.4453125 
-136.2098999 -450.4849243 26.4480133 452 464.9239807 -0.0174868 0.1490429 -2.9339862 38875.0351562 
-138.0006866 -450.5846252 26.2997036 453 465.9239807 -0.0053922 0.1346457 -3.0471067 99375.2031250 
-140.1707001 -450.3215027 26.1524715 454 466.9239807 0.0054855 0.1325676 3.0425725 104920.3593750 
-142.3889618 -449.3882141 26.0142937 455 467.9239807 0.0090619 0.1057754 2.7462590 100226.3515625 
-144.3189240 -447.5403748 25.9343243 456 468.9239807 0.0115360 0.0771182 2.3507435 86151.4687500 
-145.4225311 -444.7466125 25.8797989 457 469.9239807 0.0134710 0.0764198 1.8973126 89343.8671875 
-145.3557281 -441.2536011 25.8140411 458 470.9239502 0.0060564 0.0807375 1.4764062 143475.2343750 
-144.2362976 -437.2155457 25.7101612 459 471.9239502 -0.0067641 0.0858945 1.2267766 137951.4375000 
-142.1223297 -432.8587341 25.6114178 460 472.9239502 -0.0000865 0.0857948 1.0729362 130334.2968750 
-139.5745697 -428.2333374 25.4872780 461 473.9239502 0.0055406 0.0878689 1.0365427 140576.1875000 
-136.8458557 -423.4185181 25.3318043 462 474.9239502 0.0048377 0.0925834 1.0318409 106589.2890625 
-134.0589294 -418.1009216 25.1371040 463 475.9239502 0.0013491 0.0939320 1.0719984 98442.4921875 
-131.3821716 -412.5074158 24.9883137 464 476.9239197 -0.0066980 0.0844119 1.1018349 100825.7656250 
-128.7010345 -406.8697815 24.8473091 465 477.9239197 -0.0134323 0.0975631 1.0958391 102903.0781250 
-126.0093307 -401.3896179 24.6816578 466 478.9239197 -0.0074586 0.0955202 1.0855837 120127.2578125 
-123.2197037 -396.0174255 24.5240326 467 479.9239197 -0.0066829 0.0990214 1.0516819 82816.6562500 
-120.0702362 -390.8299866 24.3500175 468 480.9239197 0.0101798 0.0868601 0.9898885 93863.5625000 
-116.5185013 -385.7158203 24.2001457 469 481.9239197 0.0124140 0.0982560 0.9227315 69587.5625000 
-112.5271835 -380.8529663 24.0211773 470 482.9239197 0.0232172 0.0956525 0.8357695 122884.7031250 
-108.1255951 -376.3720703 23.7538013 471 483.9238892 0.0060394 0.1011044 0.7329539 79299.2343750 
-103.3078918 -372.5149536 23.4720325 472 484.9238892 0.0024135 0.1035457 0.6151333 90863.8828125 
-98.1497345 -369.4162598 23.2804279 473 485.9238892 0.0103218 0.0939958 0.4770194 66130.2734375 
-92.4605637 -367.0581665 23.0604897 474 486.9238892 0.0213322 0.1076235 0.3248236 101935.0390625 
-86.6666565 -365.6428833 22.7913513 475 487.9238892 0.0386557 0.1205615 0.1789235 119418.8125000 
-81.1814575 -364.8966370 22.4428101 476 488.9238892 0.0685727 0.1370716 0.1175418 122689.7578125 
-76.3431702 -364.2211914 22.2201767 477 489.9238892 0.0477548 0.1043478 0.1075679 99615.3671875 
-72.5646439 -363.6946716 22.1469402 478 490.9238586 0.0356679 0.0761215 0.1050127 95249.7890625 
-70.2790070 -363.4089355 22.1614113 479 491.9238586 0.0419176 0.0567957 0.1040755 107397.1796875 
-68.5143280 -363.3215942 22.1847782 480 492.9238586 0.0521398 0.0431062 0.0460921 133520.3125000 
-65.9391937 -363.5421448 22.2361584 481 493.9238586 0.0767608 0.0240520 -0.0909956 125649.3359375 
-61.8737679 -364.5126038 22.2389355 482 494.9238586 0.0935999 0.0612862 -0.2948811 199077.7656250 
-57.6683159 -366.8001099 22.1304092 483 495.9238586 0.0863375 0.1065299 -0.5880384 149332.1250000 
-54.9428329 -370.2039795 21.8218975 484 496.9238586 0.0648876 0.1508145 -1.0318021 152685.8593750 
-54.3575592 -374.3432922 21.3486042 485 497.9238281 0.0174019 0.1887091 -1.5602002 116057.9765625 
-55.4306564 -378.2185669 20.9202805 486 498.9238281 -0.0636183 0.1482536 -1.9652677 136596.8281250 
-56.8359146 -380.8722839 20.7617989 487 499.9238281 -0.0474577 0.0808521 -2.0749359 175760.1562500 
-57.8282852 -382.8783875 20.7249146 488 500.9238281 -0.0444570 0.0645964 -2.0570452 201921.1875000 
-58.5435371 -384.4393616 20.7099762 489 501.9238281 -0.0362676 0.0566919 -2.0274639 243867.7812500 
-58.9800682 -385.4215088 20.7213078 490 502.9238281 -0.0271689 0.0602214 -2.0079491 273635.1250000 
-58.8813705 -385.2018433 20.7224255 491 503.9237976 -0.0298238 0.0585608 -2.0103214 280589.1250000 
-58.4032516 -384.2019043 20.7206059 492 504.9237976 -0.0381433 0.0607574 -1.9925153 259460.4843750 
-57.7678719 -382.7884216 20.7282829 493 505.9237976 -0.0450691 0.0668666 -1.9524266 255183.2031250 
-57.1121063 -381.1720886 20.7573967 494 506.9237976 -0.0464539 0.0822817 -1.8618425 234515.2031250 
-56.5918808 -379.4557190 20.8377838 495 507.9237976 -0.0448368 0.1137266 -1.7547498 178906.8437500 
-56.2944260 -377.7492981 20.9675159 496 508.9237976 -0.0185059 0.1453119 -1.6310114 215003.0000000 
-56.2006912 -376.1927490 21.1075191 497 509.9237976 0.0094736 0.1553523 -1.5063184 247754.7656250 
-56.3288498 -374.8296204 21.2495174 498 510.9237671 0.0378939 0.1590438 -1.4377130 219674.1562500 
-56.4498291 -374.3548889 21.2937965 499 511.9237671 0.0496332 0.1616407 -1.4525815 256130.0781250 
-56.0494080 -374.9682922 21.2322731 500 512.9237671 0.0605298 0.1487239 -1.2783989 272811.9062500 
-54.6415443 -376.2872620 21.1067791 501 513.9237671 0.1037712 0.1389334 -0.8448015 215707.6093750 
-52.3590698 -377.7228394 20.9344368 502 514.9237671 0.1388898 0.1277418 -0.5846122 186253.1562500 
-49.3965378 -379.7863159 20.6268158 503 515.9237671 0.1354212 0.1547885 -0.6365663 176703.4687500 
-46.1171188 -382.7369995 20.1173115 504 516.9237671 0.1069521 0.1838897 -0.7913892 187034.7812500 
-42.8870087 -386.7770691 19.4276123 505 517.9237671 0.0873673 0.1987586 -0.9539749 179542.6875000 
-39.6003647 -391.8768616 18.5461140 506 518.9237671 0.0807672 0.2072143 -1.0333128 154701.1093750 
-35.8442192 -398.1114502 17.4921684 507 519.9237671 0.0812870 0.2019727 -1.0526414 134163.7187500 
-31.5528812 -405.3210449 16.2681122 508 520.9237061 0.0878659 0.2100358 -1.0523800 118781.6171875 
-26.8121853 -413.3670654 14.8656683 509 521.9237061 0.1045121 0.2117496 -1.0517139 104858.0078125 
-21.6297436 -422.0263977 13.3763571 510 522.9237061 0.1103140 0.2040683 -1.0459911 86514.8906250 
-16.1490326 -431.0372620 11.9399738 511 523.9237061 0.1067271 0.1968549 -1.0396135 104829.7343750 
-10.4118013 -440.2922974 10.5345898 512 524.9237061 0.0900979 0.1917581 -1.0327784 115618.1796875 
-4.5014739 -449.4604492 9.2206631 513 525.9237061 0.0610612 0.1870272 -1.0224456 157605.9531250 
1.4009336 -458.6452942 7.8609867 514 526.9237061 0.0832554 0.1888048 -1.0104114 135094.1093750 
7.4851618 -467.6273193 6.4407568 515 527.9237061 0.0903850 0.1971155 -0.9800038 142712.4531250 
13.6830616 -476.0992737 5.1916666 516 528.9237061 0.0837193 0.1797679 -0.9450415 119293.4531250 
20.2836361 -484.2747192 3.9699826 517 529.9237061 0.0724300 0.1822964 -0.8853499 120336.3046875 
27.4052753 -491.9830017 2.8219237 518 530.9237061 0.0901950 0.1705379 -0.8047805 102801.3281250 
35.1763115 -498.7327271 1.8172566 519 531.9237061 0.0987247 0.1559655 -0.6845761 81764.1718750 
43.7057037 -504.5270386 0.9131231 520 532.9237061 0.1043064 0.1492536 -0.5686776 107459.3671875 
52.8835678 -509.4796143 0.1670144 521 533.9237061 0.0994465 0.1267355 -0.4889359 124436.9609375 
62.2913017 -513.9811401 -0.3610118 522 534.9236450 0.0909302 0.1136917 -0.4528373 150261.3437500 
71.7610855 -518.2252197 -0.8772371 523 535.9236450 0.0926808 0.1122490 -0.4317140 128341.9531250 
81.1986313 -522.3889160 -1.3332363 524 536.9236450 0.0965841 0.1094757 -0.4317786 147379.0781250 
90.5790253 -526.4963379 -1.7526640 525 537.9236450 0.0878241 0.1063648 -0.4321602 116228.5859375 
99.5722122 -530.4417114 -2.1577759 526 538.9236450 0.0814840 0.1065257 -0.4323971 145010.3125000 
107.9624786 -534.1376953 -2.5968034 527 539.9236450 0.0929671 0.1191106 -0.4307215 142509.5468750 
115.5389633 -537.5186157 -3.0029261 528 540.9236450 0.0927605 0.1153508 -0.4434350 184196.0000000 
122.1788254 -540.6049194 -3.3612671 529 541.9236450 0.0895941 0.1157988 -0.4596938 168125.9375000 
127.6164856 -543.2409058 -3.6791272 530 542.9236450 0.1010845 0.1276172 -0.4665444 123942.5000000 
131.7400665 -545.3256836 -3.9554510 531 543.9236450 0.1102698 0.1294858 -0.4836051 185509.2187500 
134.8608093 -547.0999146 -4.1902614 532 544.9236450 0.1063150 0.1389030 -0.5486303 198292.4843750 
136.7621613 -548.4239502 -4.3249421 533 545.9236450 0.1081330 0.1251502 -0.6234590 185851.0000000 
137.7871704 -549.2358398 -4.4074421 534 546.9236450 0.1058849 0.1010867 -0.6782409 203308.2656250 
138.0129242 -549.4415894 -4.4333897 535 547.9235840 0.1063693 0.0935571 -0.6923627 264921.5937500 
138.0182037 -549.4337769 -4.4371614 536 548.9235840 0.1056173 0.0917290 -0.6926060 322045.4062500 
138.1273193 -549.5313721 -4.4326124 537 549.9235840 0.1040167 0.0867379 -0.7001393 250708.9687500 
138.6526337 -550.1132812 -4.4601893 538 550.9235840 0.1001762 0.0720161 -0.7773128 212228.5781250 
139.7675781 -552.2149048 -4.5577688 539 551.9235840 0.1019176 0.0765339 -1.0866380 180025.2968750 
140.3790283 -556.2687988 -4.7747846 540 552.9235840 0.0867997 0.1029150 -1.5089993 264559.6875000 
139.6199799 -562.1589966 -5.1988325 541 553.9235840 0.0566017 0.1171551 -1.7868266 216261.9375000 
137.3792725 -569.6993408 -5.8038530 542 554.9235840 0.0455996 0.1295536 -1.9158868 204043.6093750 
133.9817505 -578.5641479 -6.5804873 543 555.9235840 0.0360997 0.1307494 -1.9854097 185601.6875000 
129.7390442 -588.4005127 -7.4505014 544 556.9235840 0.0361965 0.1360038 -2.0058751 210573.8593750 
125.0335999 -598.9069824 -8.3945904 545 557.9235840 0.0375468 0.1322969 -2.0178356 177181.6406250 
119.9135361 -610.1130981 -9.4415712 546 558.9235840 0.0359552 0.1387569 -2.0213199 188649.6562500 
114.4410553 -622.0361938 -10.5119591 547 559.9235840 0.0413096 0.1351757 -2.0209668 185328.7031250 
108.6499329 -634.7164917 -11.6535692 548 560.9235229 0.0342801 0.1359757 -2.0210633 139647.7343750 
102.5949554 -647.9841309 -12.8643417 549 561.9235229 0.0402404 0.1402994 -2.0171893 142565.0937500 
96.5213776 -661.4784546 -14.0914030 550 562.9235229 0.0396976 0.1412254 -2.0133913 135609.5468750 
90.4473343 -675.1196289 -15.2899008 551 563.9235229 0.0367693 0.1378965 -2.0107338 137221.8750000 
84.3680649 -688.7529297 -16.4901714 552 564.9235229 0.0385712 0.1378564 -2.0115893 180423.0781250 
78.2899475 -702.3137207 -17.6623154 553 565.9235229 0.0414343 0.1387351 -2.0115285 164369.3593750 
72.2956009 -715.7860107 -18.7972450 554 566.9235229 0.0454276 0.1396462 -2.0088291 95966.1250000 
66.3918839 -729.2207642 -19.9302158 555 567.9235229 0.0377596 0.1362502 -2.0042961 82747.5546875 
60.5213051 -742.6388550 -21.0894966 556 568.9235229 0.0371653 0.1391046 -2.0039771 120423.0156250 
54.6759758 -756.0823975 -22.2328510 557 569.9235229 0.0345898 0.1386120 -2.0020306 138964.4687500 
48.8662682 -769.4635620 -23.3279171 558 570.9235229 0.0346486 0.1357539 -2.0010166 111929.8203125 
43.1488762 -782.6509399 -24.4612312 559 571.9235229 0.0236539 0.1465125 -2.0035260 140614.0625000 
37.5098152 -795.5891724 -25.5722446 560 572.9234619 0.0139168 0.1306829 -2.0036130 159174.1093750 
31.9295464 -808.4196777 -26.7074776 561 573.9234619 0.0271917 0.1477957 -2.0065207 132831.6718750 
26.2233067 -821.1542358 -27.8357162 562 574.9234619 0.0251642 0.1382854 -2.0195308 118301.9687500 
20.4026146 -833.8336182 -28.9743404 563 575.9234619 0.0305106 0.1383028 -2.0229707 117441.2109375 
14.4854202 -846.6875000 -30.1186638 564 576.9234619 0.0325301 0.1435066 -2.0236011 96925.9765625 
8.5582438 -859.6052246 -31.3012371 565 577.9234619 0.0346754 0.1400750 -2.0206392 134620.7812500 
2.5863214 -872.7409058 -32.5090370 566 578.9234619 0.0345834 0.1416931 -2.0162325 108011.4062500 
-3.3596253 -886.0457764 -33.7297668 567 579.9234619 0.0312309 0.1403654 -2.0112498 113443.3984375 
-9.3163347 -899.5975952 -35.0057793 568 580.9234619 0.0289985 0.1397389 -2.0057023 112881.4140625 
-15.2481222 -913.2870483 -36.2608643 569 581.9234619 0.0285618 0.1408905 -1.9967629 159567.0781250 
-21.0554142 -927.0032959 -37.4898529 570 582.9234619 0.0281460 0.1453597 -1.9917748 108991.9218750 
-26.8010826 -940.6655884 -38.7612305 571 583.9234619 0.0279716 0.1453487 -1.9878883 137579.3281250 
-32.4204903 -954.2402344 -40.0743179 572 584.9234009 0.0341629 0.1489916 -1.9838665 97141.0859375 
-37.8779907 -967.5280762 -41.3361092 573 585.9234009 0.0451346 0.1467138 -1.9777876 113386.6484375 
-43.1858330 -980.6187134 -42.5400963 574 586.9234009 0.0292324 0.1465399 -1.9811211 108525.7578125 
-48.4048767 -993.4081421 -43.7123184 575 587.9234009 0.0228494 0.1492357 -1.9785012 106919.1640625 
-53.4324341 -1005.9343872 -44.9769936 576 588.9234009 0.0420414 0.1509144 -1.9657853 134580.5468750 
-58.0969505 -1018.3805542 -46.2200432 577 589.9234009 0.0439388 0.1550571 -1.9308649 136176.2031250 
-61.8940086 -1030.8896484 -47.5059891 578 590.9234009 0.0498649 0.1643255 -1.8502727 104562.9921875 
-64.6339035 -1043.4869385 -48.7848396 579 591.9234009 0.0525747 0.1613424 -1.7694541 136953.7187500 
-66.3286438 -1056.3040771 -50.1271744 580 592.9234009 0.0622439 0.1622171 -1.6850312 157700.5156250 
-66.8238525 -1069.3492432 -51.4607658 581 593.9234009 0.0695496 0.1652133 -1.5781006 126789.3671875 
-65.8992844 -1082.4884033 -52.8376122 582 594.9234009 0.0739297 0.1629751 -1.4761366 127250.2421875 
-63.6513977 -1095.7094727 -54.1791191 583 595.9234009 0.0850129 0.1580726 -1.3752825 94744.5859375 
-60.0420036 -1108.7878418 -55.5521278 584 596.9233398 0.0757921 0.1607510 -1.2872554 128582.9375000 
-55.6725197 -1121.6425781 -56.8578873 585 597.9233398 0.0802303 0.1556727 -1.2463717 138040.6562500 
-51.2928467 -1134.4528809 -58.0122299 586 598.9233398 0.0450618 0.1399672 -1.2953519 214798.1093750 
-48.1131401 -1147.4274902 -59.1201477 587 599.9233398 0.0449992 0.1475457 -1.4020592 190534.5156250 
-46.7559624 -1160.4838867 -60.2205620 588 600.9233398 0.0351948 0.1426948 -1.5682317 192845.0000000 
-47.8644447 -1173.4265137 -61.2707520 589 601.9233398 0.0390036 0.1409162 -1.7592944 188340.7031250 
-51.1781464 -1186.0450439 -62.2757721 590 602.9233398 0.0273588 0.1348046 -1.9145541 130293.7968750 
-56.0476341 -1198.6062012 -63.3508644 591 603.9233398 0.0444451 0.1321914 -1.9807471 140340.0625000 
-61.1596794 -1211.2906494 -64.4484711 592 604.9233398 0.0436089 0.1348450 -1.9700919 145072.7812500 
-66.3292770 -1224.1981201 -65.5654602 593 605.9233398 0.0438323 0.1354847 -1.9764510 103314.1093750 
-71.8740463 -1237.5939941 -66.7307739 594 606.9233398 0.0562286 0.1414613 -1.9781376 97352.0156250 
-77.5549774 -1251.5473633 -67.9635696 595 607.9233398 0.0507911 0.1340409 -1.9770793 89440.7890625 
-83.4985199 -1265.9710693 -69.2320251 596 608.9232788 0.0504697 0.1345084 -1.9859962 170320.5156250 
-89.7730484 -1280.6796875 -70.5810089 597 609.9232788 0.0519504 0.1430205 -1.9969261 153762.8750000 
-96.0941086 -1295.3599854 -71.8588867 598 610.9232788 0.0500637 0.1380634 -1.9999105 215440.4375000 
-102.4872513 -1310.0373535 -73.1514435 599 611.9232788 0.0206110 0.1439516 -2.0108867 205992.0937500 
-108.9696808 -1324.5135498 -74.4683456 600 612.9232788 0.0247357 0.1462766 -2.0142751 160378.1875000 
-115.1815033 -1338.7806396 -75.7731476 601 613.9232788 0.0253875 0.1354684 -1.9873899 134429.5781250 
-120.6075821 -1352.8432617 -77.0157623 602 614.9232788 0.0262489 0.1377313 -1.9376638 135869.7343750 
-125.4157867 -1366.6951904 -78.1334686 603 615.9232788 0.0140973 0.1304289 -1.9259851 143452.9375000 
-130.1589203 -1380.3294678 -79.0750122 604 616.9232788 0.0081864 0.1135619 -1.9345589 88723.4140625 
-134.8776550 -1393.7523193 -79.8608627 605 617.9232788 0.0004793 0.1129713 -1.9270680 158310.6093750 
-138.9850769 -1406.6621094 -80.6390381 606 618.9232788 -0.0141173 0.1213941 -1.8897823 149688.4375000 
-142.4190826 -1418.8312988 -81.5159302 607 619.9232178 -0.0273265 0.1367687 -1.8686187 184438.8593750 
-145.4758148 -1429.9542236 -82.4188385 608 620.9232178 -0.0398533 0.1453005 -1.8742064 203371.9843750 
-148.3655548 -1439.7471924 -83.2412567 609 621.9232178 -0.0111580 0.1383625 -1.8801800 173159.3125000 
-150.4351196 -1448.4614258 -83.8704224 610 622.9232178 0.0464168 0.1278273 -1.7596841 160169.1562500 
-150.7455597 -1456.3583984 -84.3223114 611 623.9232178 0.0850947 0.1108215 -1.5397298 187137.8437500 
-149.4287567 -1463.7486572 -84.6432037 612 624.9232178 0.1199616 0.0991984 -1.3194245 113181.1406250 
-146.4427795 -1470.1662598 -84.7880859 613 625.9232178 0.1469979 0.0781108 -1.0457673 85618.1640625 
-142.0775909 -1475.1965332 -84.8234711 614 626.9232178 0.1610172 0.0596071 -0.7582692 107538.2187500 
-136.3609161 -1478.7243652 -84.7425232 615 627.9232178 0.1756794 0.0370909 -0.4552231 120225.2734375 
-129.5722656 -1480.4045410 -84.4358597 616 628.9232178 0.1640751 -0.0025423 -0.1453991 123340.1640625 
-122.4083099 -1479.9449463 -83.8457260 617 629.9232178 0.1452580 -0.0349519 0.1588387 129672.3984375 
-115.3280106 -1477.1667480 -82.9869690 618 630.9231567 0.1071377 -0.0659260 0.4629473 160043.2968750 
-108.4955215 -1472.6944580 -81.9473419 619 631.9231567 0.0646385 -0.0837954 0.5774855 176991.1250000 
-100.9793396 -1467.6983643 -80.7858582 620 632.9231567 0.0664262 -0.0757380 0.5573534 180256.4531250 
-92.6839218 -1462.5667725 -79.6020279 621 633.9231567 0.0646332 -0.0704729 0.5195345 165406.5937500 
-83.5527039 -1457.2156982 -78.3770599 622 634.9231567 0.0578839 -0.0583161 0.4998916 127106.5390625 
-74.3077240 -1451.9226074 -77.2346573 623 635.9231567 0.0577928 -0.0538732 0.5127720 47603.0585938 
-65.2210617 -1446.3874512 -76.0899506 624 636.9231567 0.0462045 -0.0433894 0.5298917 53836.9414062 
-56.8913956 -1441.1716309 -75.0919113 625 637.9231567 0.0409427 -0.0310276 0.5409625 46448.6054688 
-50.3184662 -1436.7768555 -74.3438339 626 638.9231567 0.0351958 -0.0267660 0.5849770 56624.4921875 
-45.4949989 -1433.2843018 -73.7985840 627 639.9231567 0.0321379 -0.0234909 0.6144891 74283.4609375 
